ply
format ascii 1.0
element vertex 2290
property float x
property float y
property float z
property uchar red
property uchar green
property uchar blue
end_header
-189 -97 292 4 10 10
-188 -96 292 4 10 8
-187 -96 292 5 10 8
-186 -96 291 5 10 9
-185 -96 291 6 10 9
-184 -96 291 6 10 9
-183 -96 291 6 10 9
-182 -95 290 5 10 8
-181 -95 290 5 11 9
-180 -95 290 4 10 8
-179 -95 290 5 11 9
-178 -95 289 5 11 9
-177 -94 288 4 10 10
-176 -94 288 5 11 11
-174 -94 287 5 11 10
-173 -93 286 5 11 11
-172 -93 286 5 11 11
-171 -93 286 4 10 10
-171 -93 286 4 10 10
-170 -93 286 4 10 10
-169 -93 286 4 10 10
-168 -93 286 3 9 9
-167 -93 286 3 9 9
-166 -92 285 3 9 9
-165 -92 285 5 9 8
-164 -92 285 4 8 7
-164 -92 285 3 9 7
-163 -92 285 3 9 7
-162 -92 285 3 9 8
-161 -92 285 3 9 9
-161 -92 285 3 9 9
-160 -92 285 3 9 9
-158 -91 284 3 9 9
-158 -91 284 4 10 10
-157 -91 284 3 9 9
-156 -91 284 3 9 9
-155 -91 284 3 10 10
-155 -91 284 5 11 11
-154 -91 284 5 11 11
-153 -91 284 5 11 11
-153 -91 285 7 13 13
-152 -91 285 6 13 13
-151 -91 285 5 14 13
-151 -91 285 6 12 12
-150 -91 285 7 13 13
-149 -91 285 7 14 14
-149 -91 286 6 15 14
-148 -91 286 5 14 13
-147 -91 286 7 16 15
-147 -91 286 6 15 14
-146 -91 287 6 15 14
-146 -91 287 6 15 14
-145 -91 287 7 16 15
-144 -91 287 6 15 14
-144 -91 288 5 14 13
-143 -91 288 6 15 14
-142 -91 288 5 14 13
-142 -91 289 6 14 14
-141 -91 289 5 14 16
-141 -91 289 6 14 16
-140 -91 289 5 13 15
-140 -91 290 5 13 15
-139 -91 290 5 13 14
-138 -91 290 5 14 13
-138 -91 291 6 15 14
-137 -91 291 6 15 14
-137 -91 291 5 14 13
-136 -91 292 5 14 13
-136 -91 292 3 12 11
-135 -91 292 4 13 12
-135 -91 293 4 13 14
-134 -91 293 5 14 15
-134 -92 294 4 14 15
-133 -92 294 2 12 13
-133 -92 295 3 11 13
-132 -92 295 4 12 14
-132 -92 296 5 13 15
-131 -92 296 5 12 14
-130 -92 296 5 12 14
-130 -92 297 6 12 15
-129 -92 297 7 12 15
-129 -92 298 9 14 17
-128 -92 298 10 15 18
-127 -92 298 10 15 18
-127 -93 299 11 16 19
-126 -92 299 12 17 20
-126 -93 300 14 20 23
-125 -93 300 16 24 27
-125 -93 301 20 28 31
-125 -93 302 21 29 32
-124 -93 303 23 31 34
-124 -94 304 22 30 35
-124 -94 305 20 28 33
-124 -95 307 16 23 25
-124 -95 308 17 23 26
-123 -95 309 16 22 26
-123 -95 310 15 23 26
-123 -96 311 16 24 27
-122 -96 312 16 24 27
-122 -96 313 16 24 27
-121 -96 314 17 25 28
-121 -97 315 18 26 29
-120 -96 315 19 27 30
-120 -97 317 18 26 29
-120 -97 317 19 27 29
-119 -97 318 20 28 31
-119 -97 319 23 30 35
-119 -98 320 23 30 36
-118 -98 321 25 32 38
-118 -98 322 27 35 38
-117 -99 323 31 38 44
-117 -99 325 30 38 44
-117 -100 327 32 40 48
-117 -100 329 35 43 51
-117 -101 331 27 34 43
-118 -102 334 24 31 39
-118 -102 337 27 31 40
-118 -103 340 32 36 45
-118 -104 341 35 39 48
-117 -104 342 39 43 52
-116 -103 341 43 47 56
-115 -103 339 47 51 60
-112 -101 333 49 52 61
-213 -103 309 3 9 9
-211 -102 308 3 9 9
-210 -102 308 3 9 9
-209 -102 307 4 10 10
-207 -101 306 2 8 8
-205 -101 304 3 9 9
-202 -100 301 2 8 8
-199 -98 298 3 9 9
-197 -98 296 4 10 9
-195 -97 294 3 9 8
-193 -96 293 3 8 7
-192 -96 292 5 9 8
-191 -96 292 5 9 8
-190 -96 292 5 9 8
-189 -96 292 4 9 8
-188 -96 292 4 10 8
-187 -95 291 5 10 8
-186 -95 291 5 11 9
-184 -95 290 6 12 10
-184 -95 290 4 10 8
-183 -95 290 4 10 8
-182 -94 290 5 11 9
-181 -94 290 5 11 9
-180 -94 289 4 10 8
-179 -94 289 4 10 9
-177 -93 288 4 10 10
-177 -93 288 4 10 10
-175 -93 287 3 9 9
-174 -93 287 3 9 7
-173 -93 286 3 9 7
-172 -92 286 4 10 8
-171 -92 285 3 9 7
-170 -92 285 3 9 8
-169 -92 285 3 9 7
-168 -92 285 3 9 9
-167 -92 285 3 9 9
-167 -92 285 2 8 8
-166 -92 285 3 9 9
-165 -91 285 3 7 6
-164 -91 285 2 8 6
-164 -91 285 3 9 7
-162 -91 284 3 9 8
-162 -91 285 4 10 9
-161 -91 284 4 10 9
-160 -91 284 4 10 10
-159 -91 284 2 11 10
-158 -91 284 2 11 10
-158 -90 284 3 10 10
-157 -90 284 4 10 10
-156 -90 284 3 9 9
-155 -90 284 4 10 10
-155 -90 284 3 12 11
-154 -90 284 3 12 11
-153 -90 284 3 12 11
-153 -90 285 4 13 12
-152 -90 285 5 12 12
-151 -90 285 6 13 12
-150 -90 284 6 12 12
-150 -90 285 6 12 12
-149 -90 285 6 13 13
-148 -90 285 6 15 14
-148 -90 285 6 15 14
-147 -90 286 6 16 15
-147 -90 286 6 15 14
-146 -90 286 5 14 13
-145 -90 286 6 15 14
-144 -90 286 6 15 14
-144 -90 287 6 14 14
-143 -90 287 6 13 13
-143 -90 287 7 14 14
-142 -90 288 8 14 14
-142 -90 288 8 14 14
-141 -90 288 7 15 17
-140 -90 288 7 15 16
-140 -90 289 6 15 16
-139 -90 289 6 15 15
-139 -90 289 6 15 15
-138 -90 290 6 16 15
-138 -90 290 6 16 15
-137 -90 291 6 16 15
-137 -90 291 5 15 14
-136 -90 291 4 14 14
-136 -91 292 4 14 14
-135 -91 292 5 15 15
-135 -91 293 5 16 16
-134 -91 293 5 15 16
-134 -91 294 5 15 16
-133 -91 294 6 14 16
-133 -91 295 6 14 16
-132 -91 295 6 14 16
-131 -91 295 6 13 15
-131 -91 296 6 12 15
-130 -91 296 7 12 15
-129 -91 296 7 12 15
-129 -91 297 7 12 15
-128 -91 297 8 14 17
-128 -92 298 10 15 18
-127 -92 298 8 15 17
-127 -92 299 7 14 16
-126 -92 299 9 16 18
-126 -92 299 12 19 22
-125 -92 300 15 23 26
-125 -92 300 18 26 29
-124 -92 301 20 28 31
-124 -92 302 22 30 33
-124 -93 303 24 32 35
-123 -93 304 25 32 36
-123 -93 305 21 26 29
-123 -94 307 20 25 28
-123 -94 308 17 22 27
-122 -94 309 14 22 25
-122 -95 310 17 25 28
-122 -95 311 17 25 28
-121 -95 312 16 23 27
-121 -95 313 17 24 27
-121 -96 314 19 26 28
-120 -96 315 21 27 30
-120 -96 316 23 29 32
-120 -96 317 23 29 33
-119 -97 318 26 31 35
-119 -96 318 23 29 34
-118 -97 319 24 29 35
-118 -97 320 22 29 35
-118 -98 322 25 32 39
-117 -98 323 30 37 45
-117 -98 324 32 39 47
-117 -98 325 33 40 48
-117 -99 327 36 43 51
-117 -99 329 32 39 47
-117 -100 332 23 30 38
-117 -101 336 26 30 39
-118 -102 339 29 33 42
-118 -103 341 34 38 47
-117 -103 342 39 43 52
-117 -103 343 39 43 52
-116 -103 342 39 43 52
-114 -102 339 43 44 55
-215 -102 310 2 9 9
-213 -102 309 3 9 9
-211 -102 308 3 9 9
-210 -101 307 4 10 9
-208 -101 306 4 10 8
-206 -100 305 3 9 7
-204 -100 303 3 9 7
-201 -98 300 3 9 7
-198 -97 297 3 10 8
-196 -97 295 4 10 8
-195 -96 294 5 10 8
-193 -96 293 4 10 8
-192 -95 292 4 10 8
-191 -95 292 4 10 8
-190 -95 292 4 10 8
-189 -95 292 4 10 8
-187 -95 291 4 10 8
-187 -95 291 4 10 8
-186 -94 291 4 10 8
-184 -94 290 4 10 8
-183 -94 290 4 10 8
-183 -94 290 4 10 8
-182 -94 290 3 9 7
-180 -93 289 4 10 8
-180 -93 289 4 10 9
-178 -93 288 2 8 8
-177 -93 288 2 8 8
-176 -92 287 3 9 9
-175 -92 287 2 8 8
-174 -92 286 2 8 6
-173 -92 286 2 8 6
-171 -91 285 2 8 6
-171 -91 285 3 9 7
-170 -91 285 3 9 7
-168 -91 284 2 8 7
-168 -91 284 3 9 8
-167 -91 284 4 10 9
-166 -91 284 4 10 10
-165 -91 284 5 11 11
-164 -90 284 3 9 7
-164 -90 284 3 9 8
-163 -90 284 2 10 10
-162 -90 284 2 11 10
-161 -90 284 3 11 10
-161 -90 284 3 12 11
-159 -90 283 3 11 11
-158 -90 283 4 12 10
-158 -90 283 4 11 9
-157 -89 283 3 11 10
-156 -89 283 1 11 10
-156 -90 284 1 11 10
-155 -90 284 1 11 10
-154 -89 284 2 11 10
-154 -89 284 2 11 10
-153 -89 284 3 11 10
-152 -89 284 4 11 10
-151 -89 284 5 11 11
-151 -89 284 5 11 11
-150 -89 284 5 11 11
-149 -89 284 5 11 11
-148 -89 284 5 12 12
-148 -89 285 4 13 12
-147 -89 285 5 14 13
-147 -89 285 5 14 13
-147 -89 286 4 12 14
-146 -89 286 4 12 14
-145 -89 286 5 13 15
-144 -89 286 6 14 16
-144 -89 286 7 12 15
-143 -89 287 7 12 15
-143 -89 287 8 13 16
-142 -89 287 7 14 16
-141 -89 287 6 14 16
-141 -89 288 7 15 17
-140 -89 288 6 16 15
-139 -89 288 6 16 15
-139 -89 289 7 17 16
-138 -89 289 7 17 16
-138 -89 289 7 17 16
-137 -90 290 7 17 17
-137 -90 290 6 16 17
-136 -89 290 7 17 18
-136 -90 291 7 17 18
-135 -90 291 7 17 18
-134 -90 291 7 17 18
-134 -90 292 7 17 18
-133 -90 292 6 16 17
-133 -90 293 8 16 18
-133 -90 294 10 16 19
-132 -90 294 8 16 18
-132 -90 295 6 14 16
-131 -90 295 7 13 16
-130 -90 295 8 13 16
-130 -91 296 8 13 16
-129 -91 296 6 14 16
-129 -91 297 6 14 16
-128 -91 297 8 14 17
-128 -91 298 9 15 18
-127 -91 298 8 16 18
-127 -91 299 6 15 15
-126 -91 299 8 17 16
-126 -91 299 11 20 20
-125 -91 299 14 22 24
-125 -91 300 17 25 28
-124 -91 300 18 27 29
-123 -91 301 22 30 33
-123 -92 302 25 33 36
-123 -92 303 25 33 36
-123 -92 304 24 29 35
-122 -92 305 23 28 34
-122 -93 307 19 24 30
-122 -93 308 17 22 26
-122 -94 310 17 22 26
-122 -94 311 18 24 28
-121 -94 312 18 23 27
-121 -95 313 19 24 28
-121 -95 314 20 25 29
-120 -95 315 21 26 32
-120 -95 316 25 30 36
-119 -95 316 27 31 38
-119 -96 317 26 31 38
-118 -96 318 23 28 35
-118 -96 319 23 28 35
-118 -96 320 21 28 36
-117 -97 321 22 30 37
-117 -97 322 29 36 44
-117 -97 323 30 37 45
-116 -97 324 30 37 45
-116 -98 326 34 42 48
-116 -98 327 35 42 48
-116 -99 330 28 35 41
-117 -100 334 25 30 39
-117 -101 338 27 31 40
-117 -102 340 32 36 45
-117 -103 343 37 41 50
-117 -103 344 39 43 53
-116 -103 344 44 48 59
-114 -102 341 44 42 56
-112 -101 337 61 59 72
-215 -102 310 4 10 9
-214 -102 310 4 10 7
-213 -101 309 5 11 7
-211 -101 308 4 10 6
-210 -100 307 5 11 7
-208 -100 306 4 10 8
-206 -99 304 3 9 7
-203 -98 302 3 9 7
-201 -97 299 4 10 8
-198 -97 297 4 10 8
-195 -96 294 4 10 8
-194 -95 293 4 10 8
-192 -95 292 3 9 7
-191 -95 292 3 9 7
-191 -95 292 3 9 7
-189 -94 291 3 9 7
-188 -94 291 3 9 7
-187 -94 291 3 9 7
-186 -94 290 3 9 7
-185 -93 290 2 8 6
-184 -93 290 2 8 6
-183 -93 290 3 9 7
-183 -93 290 3 9 7
-182 -93 290 3 9 8
-180 -93 289 3 9 9
-179 -93 289 2 8 8
-178 -92 288 3 9 9
-177 -92 288 3 9 9
-176 -92 287 3 9 9
-175 -92 287 3 9 9
-173 -91 286 3 9 9
-173 -91 286 3 9 9
-171 -91 285 3 9 9
-170 -91 285 4 10 10
-170 -91 285 4 10 10
-168 -90 284 4 10 10
-168 -90 284 4 10 10
-167 -90 284 4 10 10
-166 -90 284 4 11 11
-165 -90 284 4 11 11
-164 -90 284 3 9 9
-164 -90 284 4 10 10
-163 -90 284 4 10 10
-162 -90 284 4 10 10
-161 -89 284 4 10 10
-160 -89 284 3 9 9
-159 -89 283 3 9 9
-158 -89 283 4 10 8
-158 -89 283 4 10 8
-157 -89 283 3 11 10
-156 -89 283 2 11 10
-155 -89 283 1 9 9
-155 -89 283 2 9 8
-154 -89 284 2 9 9
-154 -89 284 3 9 9
-153 -89 284 3 9 9
-152 -89 284 3 9 9
-151 -89 284 4 10 10
-151 -88 284 3 9 9
-150 -88 284 4 10 9
-149 -88 284 4 10 9
-148 -88 284 4 11 9
-148 -88 284 4 13 12
-147 -88 285 3 12 11
-147 -88 285 3 12 11
-146 -88 285 2 11 11
-145 -88 285 4 12 13
-144 -88 285 4 12 14
-144 -88 286 6 14 16
-143 -88 286 7 12 15
-143 -88 286 5 13 15
-142 -88 286 6 14 15
-141 -88 286 6 15 15
-141 -88 287 6 15 15
-140 -88 287 6 16 17
-140 -88 287 6 16 17
-139 -89 288 7 17 18
-139 -88 288 8 17 18
-138 -88 288 8 17 18
-137 -88 288 8 17 16
-137 -89 289 8 17 17
-136 -89 289 8 18 17
-136 -89 290 9 17 18
-135 -89 290 10 18 20
-135 -89 291 10 18 19
-134 -89 291 9 17 18
-134 -89 291 8 16 18
-133 -89 292 8 16 18
-133 -89 292 9 16 18
-132 -89 293 11 16 19
-132 -90 294 8 16 18
-131 -89 294 8 16 18
-131 -90 295 8 15 17
-130 -90 295 8 14 16
-130 -90 296 8 15 16
-129 -90 296 6 14 16
-129 -90 297 6 14 16
-128 -90 297 7 15 17
-128 -90 298 8 16 18
-127 -90 298 9 17 19
-127 -90 299 9 17 19
-126 -90 299 9 17 19
-125 -90 299 11 19 21
-125 -90 299 12 20 22
-124 -91 300 13 21 24
-124 -91 300 17 25 28
-123 -91 301 22 30 33
-123 -91 301 23 31 34
-122 -91 302 23 31 34
-122 -91 303 25 30 36
-122 -91 304 25 30 36
-121 -92 305 23 28 34
-122 -92 307 19 24 29
-122 -93 309 17 22 27
-121 -93 310 17 22 28
-121 -94 312 18 23 29
-121 -94 313 19 24 30
-121 -94 314 20 25 31
-120 -94 315 22 27 35
-120 -95 316 25 31 39
-119 -95 316 26 31 40
-119 -95 317 24 30 38
-118 -95 318 24 28 37
-118 -95 319 22 26 35
-117 -95 319 23 27 36
-117 -96 321 25 29 38
-117 -96 321 26 30 39
-117 -96 323 28 33 41
-116 -97 324 30 35 42
-116 -97 325 31 38 44
-115 -97 326 35 42 48
-116 -98 329 33 40 46
-116 -99 332 27 34 42
-117 -100 336 27 31 40
-117 -101 340 32 36 45
-117 -102 343 38 42 51
-117 -102 345 42 46 56
-117 -102 345 47 50 61
-115 -102 344 44 42 54
-114 -101 341 68 66 77
-215 -101 310 2 10 7
-214 -101 310 4 10 6
-213 -100 309 4 10 6
-210 -100 307 4 10 6
-209 -99 306 3 9 6
-207 -99 305 3 9 7
-205 -98 303 3 9 7
-203 -97 301 3 9 7
-200 -96 298 3 9 7
-198 -96 296 3 9 8
-195 -95 294 2 8 8
-194 -94 293 2 8 7
-192 -94 292 2 8 6
-191 -94 292 2 8 6
-190 -93 291 2 8 6
-189 -93 291 2 8 6
-188 -93 290 2 8 6
-187 -93 290 2 8 6
-186 -93 290 3 9 7
-185 -93 290 3 9 7
-184 -93 290 3 9 7
-183 -92 289 3 9 7
-182 -92 289 3 9 9
-181 -92 289 4 10 10
-180 -92 289 3 9 9
-179 -92 288 3 9 9
-178 -91 288 3 9 9
-176 -91 287 4 10 10
-176 -91 287 4 10 10
-174 -91 286 3 10 10
-173 -91 286 2 9 10
-172 -90 285 3 10 10
-171 -90 285 3 11 10
-170 -90 284 3 12 11
-169 -90 284 3 12 11
-168 -89 284 1 10 9
-167 -89 283 1 10 9
-167 -89 284 2 11 10
-166 -89 284 2 11 10
-165 -89 284 2 11 10
-164 -89 284 3 9 9
-164 -89 284 3 9 9
-163 -89 284 3 9 9
-161 -89 283 3 9 9
-161 -89 284 3 9 9
-160 -88 283 2 8 8
-159 -88 283 3 9 9
-158 -88 283 2 8 6
-158 -88 283 4 10 8
-157 -88 283 3 10 9
-156 -88 283 3 9 9
-156 -88 284 2 8 8
-155 -88 284 2 8 8
-154 -88 284 2 9 9
-154 -88 284 2 9 9
-153 -88 284 2 9 9
-152 -88 284 2 10 9
-151 -88 284 2 10 9
-151 -88 284 1 10 9
-150 -88 284 4 10 8
-149 -88 284 4 10 8
-148 -88 284 3 11 8
-148 -88 284 3 12 9
-147 -87 284 3 12 11
-147 -88 285 3 12 11
-146 -88 285 3 12 11
-145 -88 285 4 13 12
-144 -88 285 4 13 12
-144 -88 286 6 15 14
-143 -88 286 5 14 13
-143 -88 286 5 14 13
-142 -88 286 5 14 13
-141 -87 286 5 14 13
-141 -87 286 5 14 13
-140 -88 287 6 14 16
-140 -88 287 6 14 16
-139 -88 287 7 15 17
-139 -88 288 8 16 18
-138 -88 288 8 16 18
-137 -88 288 9 18 17
-136 -88 288 9 18 17
-136 -88 289 10 18 18
-135 -88 289 9 17 17
-135 -88 290 9 17 17
-134 -88 290 9 16 17
-134 -88 290 10 16 18
-133 -88 291 10 15 18
-133 -88 291 10 15 18
-132 -88 292 9 15 17
-132 -88 292 9 18 17
-131 -88 292 9 17 19
-131 -88 293 9 17 19
-130 -89 294 8 17 17
-130 -89 294 8 17 16
-129 -89 295 8 17 16
-129 -89 296 7 15 17
-128 -89 296 7 15 17
-128 -89 297 6 15 15
-127 -89 297 8 15 15
-127 -90 298 11 16 18
-126 -89 298 11 16 19
-126 -89 298 11 17 19
-125 -90 299 12 18 21
-125 -90 299 14 19 22
-124 -90 299 14 19 23
-124 -90 300 17 25 28
-123 -90 300 20 28 33
-123 -90 301 22 29 35
-122 -90 301 23 30 36
-122 -90 302 25 30 36
-121 -90 303 25 30 36
-121 -91 304 23 28 34
-121 -91 306 20 25 31
-121 -92 308 19 24 30
-121 -92 309 17 22 29
-121 -93 311 18 22 29
-121 -93 312 19 24 31
-120 -93 313 21 25 33
-120 -93 314 22 28 36
-119 -94 315 23 30 38
-119 -94 316 24 31 37
-119 -94 317 24 31 37
-118 -94 317 25 30 36
-118 -94 318 23 28 34
-117 -95 319 24 29 35
-117 -95 320 26 32 38
-116 -95 321 25 31 37
-116 -95 322 27 33 40
-116 -96 323 28 34 41
-115 -96 324 31 38 44
-115 -96 326 35 42 48
-115 -97 327 35 42 48
-115 -97 330 33 40 48
-116 -99 334 25 32 40
-116 -100 338 29 33 42
-117 -101 342 35 39 48
-117 -102 345 39 43 52
-117 -102 346 42 44 54
-116 -102 346 42 41 51
-115 -101 345 60 59 67
-111 -99 336 57 56 64
-216 -100 310 1 10 5
-215 -100 310 1 10 5
-214 -100 310 3 9 6
-213 -100 309 3 9 6
-210 -99 307 3 9 7
-209 -99 306 3 9 7
-206 -98 304 3 9 7
-204 -97 302 3 9 7
-202 -96 300 3 9 8
-199 -95 297 3 9 8
-197 -95 295 3 9 9
-195 -94 294 3 9 9
-194 -94 293 3 9 8
-192 -93 292 3 9 7
-191 -93 292 3 9 7
-190 -93 291 3 9 7
-188 -92 290 3 9 7
-187 -92 290 3 9 7
-187 -92 290 3 9 7
-186 -92 290 3 9 7
-185 -92 290 3 9 7
-184 -92 290 3 9 8
-183 -92 289 4 10 10
-182 -91 289 3 10 10
-181 -91 289 3 10 10
-179 -91 288 3 11 10
-178 -91 287 1 10 9
-177 -90 287 1 10 9
-176 -90 287 2 11 10
-175 -90 286 2 11 10
-174 -90 286 1 10 9
-173 -90 286 1 10 9
-172 -89 285 2 11 10
-171 -89 285 2 10 9
-170 -89 284 2 10 10
-169 -89 284 3 11 10
-168 -88 283 3 10 9
-167 -88 283 3 9 9
-166 -88 283 3 9 9
-165 -88 283 3 9 9
-164 -88 283 3 9 9
-164 -88 283 2 8 8
-163 -88 283 2 8 8
-162 -88 283 2 8 8
-161 -88 283 2 8 8
-161 -88 283 2 8 8
-160 -88 283 2 8 8
-159 -88 283 3 9 9
-158 -88 283 2 8 6
-157 -88 283 2 8 6
-157 -87 283 3 9 8
-156 -87 283 1 8 8
-156 -88 284 0 9 8
-155 -88 284 0 9 8
-154 -87 284 1 10 9
-153 -87 284 1 10 9
-153 -87 284 1 10 9
-152 -87 284 2 9 9
-151 -87 284 3 9 9
-150 -87 284 3 9 9
-149 -87 283 4 10 8
-149 -87 284 5 11 10
-148 -87 283 4 11 10
-148 -87 284 3 12 11
-147 -87 284 4 13 12
-146 -87 284 4 13 12
-145 -87 284 3 12 11
-145 -87 285 3 12 11
-144 -87 285 4 13 12
-144 -87 285 4 13 12
-143 -87 285 4 13 12
-142 -87 285 5 14 13
-141 -87 285 5 14 13
-141 -87 286 6 14 14
-140 -87 286 5 13 13
-140 -87 286 5 12 14
-139 -87 286 6 12 14
-139 -87 287 7 13 15
-138 -87 287 9 15 17
-138 -87 288 11 16 19
-137 -87 288 11 16 19
-136 -87 288 10 16 19
-136 -87 288 9 16 18
-135 -87 289 9 16 18
-135 -87 289 8 15 17
-134 -87 290 8 16 18
-134 -87 290 8 16 18
-133 -87 290 9 17 19
-133 -87 291 8 16 18
-132 -87 291 8 16 18
-131 -87 291 10 18 17
-131 -88 292 12 19 18
-130 -88 292 12 18 19
-130 -88 293 12 18 18
-130 -88 294 12 18 18
-129 -88 294 11 17 18
-129 -88 295 10 15 18
-128 -88 296 11 16 19
-128 -88 296 10 15 17
-127 -89 297 10 16 17
-127 -89 297 11 17 17
-126 -89 297 12 18 18
-126 -89 298 15 20 23
-125 -89 298 15 20 23
-124 -89 298 14 19 23
-124 -89 299 14 20 23
-123 -89 299 15 22 28
-123 -89 299 19 26 32
-122 -89 300 22 29 35
-121 -89 300 22 29 35
-121 -89 301 26 30 39
-120 -89 301 26 30 39
-121 -90 303 25 29 38
-121 -90 305 23 27 36
-121 -91 307 21 25 33
-121 -91 309 20 25 32
-120 -92 310 18 23 30
-120 -92 312 18 22 29
-120 -92 313 20 25 32
-119 -92 313 23 28 34
-119 -93 315 24 29 35
-119 -93 315 26 31 37
-118 -93 316 27 32 38
-118 -93 317 26 31 38
-118 -94 318 24 29 36
-117 -94 319 24 31 38
-117 -94 320 26 33 40
-116 -94 321 26 33 41
-116 -95 322 27 34 42
-116 -95 323 29 36 44
-115 -95 324 31 38 46
-115 -95 325 34 41 49
-115 -96 326 35 42 50
-115 -96 329 34 41 49
-115 -97 332 30 37 45
-116 -98 336 28 32 41
-116 -99 340 30 34 43
-117 -101 345 37 41 50
-117 -101 347 38 40 51
-117 -102 348 37 38 48
-116 -102 348 65 66 73
-114 -101 345 117 117 124
-216 -100 310 3 9 8
-215 -99 310 3 9 7
-213 -99 309 3 9 7
-212 -99 308 3 9 7
-210 -98 307 3 9 7
-208 -97 305 3 9 7
-206 -97 304 3 9 7
-203 -96 301 3 9 7
-201 -95 299 3 9 8
-199 -95 297 3 9 9
-197 -94 295 4 10 9
-194 -93 293 3 9 8
-194 -93 293 4 10 8
-192 -93 292 4 10 8
-191 -92 291 4 10 8
-189 -92 290 3 10 7
-188 -92 290 2 9 7
-187 -91 289 2 10 7
-186 -91 289 1 10 7
-185 -91 289 2 9 7
-184 -91 289 3 9 7
-184 -91 290 2 10 8
-182 -91 289 1 10 9
-182 -91 289 1 10 9
-180 -90 288 1 10 9
-179 -90 288 1 10 9
-178 -90 287 2 10 9
-177 -90 287 2 10 9
-176 -90 287 2 9 9
-175 -89 286 3 9 9
-174 -89 286 3 9 9
-173 -89 285 3 9 9
-172 -89 285 3 9 9
-170 -88 284 3 9 9
-170 -88 284 3 9 9
-169 -88 284 3 9 9
-167 -88 283 2 8 8
-167 -88 283 3 9 9
-166 -88 283 2 9 8
-165 -88 283 1 8 8
-164 -87 283 2 9 9
-164 -87 283 2 8 8
-163 -87 283 2 8 8
-162 -87 283 2 8 8
-161 -87 283 2 8 8
-160 -87 283 2 8 8
-160 -87 283 3 9 9
-159 -87 283 2 8 8
-158 -87 283 2 8 6
-157 -87 283 2 8 6
-157 -87 283 1 10 9
-156 -87 283 0 9 8
-155 -87 283 0 9 8
-154 -87 283 1 10 9
-154 -86 283 4 10 10
-153 -87 284 4 10 10
-153 -87 284 3 9 9
-152 -87 284 3 9 9
-151 -87 284 3 9 9
-150 -86 284 4 8 9
-149 -86 283 5 11 11
-148 -86 283 4 10 10
-148 -86 283 4 11 11
-147 -86 284 3 12 11
-147 -86 284 4 12 11
-146 -86 284 3 12 11
-145 -86 284 3 12 11
-144 -86 284 3 12 11
-144 -86 284 3 12 11
-144 -86 285 4 13 12
-143 -86 285 5 11 13
-142 -86 285 6 13 14
-141 -86 285 5 12 14
-141 -86 285 4 11 14
-140 -86 286 4 11 13
-140 -86 286 4 12 14
-139 -86 286 4 12 14
-138 -86 286 5 13 15
-138 -86 287 6 14 16
-137 -86 287 8 16 18
-137 -86 287 9 17 19
-136 -86 287 9 17 19
-136 -86 288 8 16 18
-135 -86 288 7 15 17
-135 -86 289 6 14 16
-134 -86 289 8 16 18
-133 -86 289 10 17 19
-133 -87 290 11 17 20
-132 -86 290 10 16 19
-131 -86 290 10 16 19
-131 -87 291 11 17 17
-130 -87 291 13 19 19
-130 -87 292 14 20 20
-129 -87 292 14 19 20
-129 -87 293 12 18 19
-129 -87 294 12 17 20
-128 -87 294 13 18 21
-128 -87 295 14 19 22
-127 -87 295 13 18 21
-127 -88 296 13 18 20
-126 -88 296 13 19 19
-126 -88 297 16 21 24
-125 -88 297 19 24 27
-124 -88 297 18 24 27
-124 -88 298 16 23 27
-123 -88 298 13 21 24
-123 -88 298 14 21 27
-122 -88 299 17 24 30
-122 -88 299 20 27 33
-121 -88 300 22 29 35
-121 -88 300 28 32 41
-120 -88 301 27 32 40
-120 -89 302 26 30 38
-120 -89 304 25 30 37
-120 -90 306 25 30 36
-120 -90 308 23 28 33
-120 -91 309 20 25 29
-120 -91 311 17 22 26
-120 -91 312 19 24 28
-119 -92 313 21 26 31
-119 -92 314 23 28 34
-118 -92 314 26 31 37
-118 -92 315 26 31 38
-118 -92 316 25 29 38
-117 -93 317 24 28 37
-117 -93 318 23 30 38
-116 -93 319 24 31 41
-116 -93 320 27 34 44
-116 -94 321 28 35 45
-115 -94 322 30 37 46
-115 -94 324 30 38 46
-115 -95 325 33 40 48
-114 -95 326 33 40 48
-114 -95 328 34 41 49
-115 -96 331 34 39 48
-115 -97 334 30 34 43
-116 -98 339 29 33 42
-117 -100 344 31 35 44
-117 -101 347 38 41 47
-117 -101 349 41 43 48
-116 -101 349 51 52 57
-116 -101 350 129 130 134
-217 -99 310 1 9 9
-216 -99 310 1 10 9
-215 -99 310 1 10 9
-213 -98 309 3 9 7
-212 -98 308 3 9 7
-210 -97 307 3 9 7
-208 -97 305 3 9 7
-206 -96 303 3 9 7
-203 -95 300 3 10 8
-200 -94 298 3 10 8
-198 -93 296 3 10 9
-196 -93 294 2 10 9
-194 -92 293 1 10 7
-193 -92 292 0 10 8
-191 -92 291 0 10 8
-190 -91 290 0 10 7
-189 -91 290 1 11 7
-187 -91 289 2 11 8
-186 -90 288 1 10 7
-185 -90 288 3 9 7
-185 -90 289 3 9 6
-184 -90 289 3 9 6
-183 -90 289 2 8 5
-182 -90 288 2 8 8
-181 -90 288 2 8 8
-179 -89 287 3 9 9
-179 -89 287 3 9 9
-177 -89 286 3 9 9
-176 -89 286 3 9 9
-176 -89 286 2 8 8
-175 -89 286 2 9 9
-173 -88 285 2 9 9
-173 -88 285 2 9 9
-172 -88 285 0 9 8
-170 -88 284 1 10 9
-170 -88 284 2 11 10
-169 -88 284 0 9 8
-167 -87 283 1 10 9
-167 -87 283 1 10 9
-166 -87 283 1 10 9
-165 -87 283 0 9 8
-164 -87 283 1 9 8
-163 -87 283 3 9 9
-163 -87 283 3 9 9
-162 -87 283 2 9 9
-161 -87 283 2 8 8
-160 -86 283 3 9 9
-160 -86 283 3 9 9
-159 -86 283 3 9 9
-158 -86 283 3 9 7
-157 -86 283 3 9 7
-157 -86 283 2 11 10
-156 -86 283 1 10 9
-155 -86 283 0 9 8
-155 -86 284 3 9 9
-154 -86 283 4 10 10
-153 -86 284 4 10 10
-153 -86 284 4 10 10
-151 -86 283 4 10 10
-151 -86 284 3 9 9
-150 -86 284 3 9 9
-150 -86 284 3 9 9
-149 -86 284 4 10 10
-148 -85 283 4 10 10
-147 -86 284 4 10 10
-147 -85 284 4 10 10
-146 -85 284 3 10 10
-145 -85 284 2 11 10
-144 -85 284 2 11 10
-144 -85 284 3 12 11
-143 -85 284 3 11 11
-142 -85 284 3 12 11
-142 -85 285 4 13 12
-141 -85 285 5 13 14
-141 -85 285 3 11 13
-140 -85 285 1 9 11
-140 -85 286 4 11 13
-139 -85 286 4 11 14
-138 -85 286 5 12 14
-137 -85 286 7 13 15
-137 -85 287 9 14 17
-136 -85 287 10 15 18
-136 -85 287 10 15 18
-135 -85 287 10 15 18
-135 -85 288 10 15 17
-134 -85 288 10 16 17
-134 -86 289 11 17 18
-133 -86 289 12 18 19
-132 -86 289 13 18 19
-132 -86 290 13 19 19
-131 -86 290 13 19 19
-131 -86 290 13 18 21
-130 -86 290 14 19 22
-130 -86 291 15 20 23
-129 -86 291 14 19 22
-129 -86 292 13 18 21
-128 -86 292 12 17 21
-128 -86 293 14 19 22
-127 -86 294 16 21 24
-127 -86 294 15 20 23
-126 -87 295 16 20 24
-126 -87 295 16 21 24
-125 -87 296 20 25 28
-125 -87 296 21 26 29
-124 -87 296 20 25 29
-124 -87 297 19 25 29
-123 -87 297 18 23 27
-123 -87 298 19 24 30
-122 -87 298 20 25 31
-121 -87 298 19 26 32
-121 -87 299 21 28 34
-120 -87 299 25 30 35
-120 -88 300 27 32 37
-120 -88 301 28 33 37
-119 -88 302 28 33 37
-119 -89 304 26 31 35
-119 -89 306 24 29 33
-120 -90 308 20 25 28
-119 -90 309 17 23 26
-119 -90 310 17 23 26
-119 -91 312 19 25 29
-119 -91 313 20 27 31
-118 -91 314 25 32 38
-118 -91 315 27 33 40
-117 -92 316 22 29 35
-117 -92 317 21 28 34
-117 -92 318 24 31 37
-116 -92 319 24 31 39
-116 -93 320 26 33 41
-116 -93 321 28 35 41
-115 -93 322 28 35 41
-115 -94 324 29 36 44
-115 -94 325 31 38 46
-114 -94 326 32 39 47
-114 -95 328 34 41 49
-114 -95 330 36 42 50
-114 -96 332 36 40 49
-115 -97 336 31 35 44
-116 -98 341 30 34 43
-117 -100 346 36 39 47
-117 -101 350 41 43 48
-117 -101 351 41 42 47
-116 -101 352 106 107 112
-115 -101 351 166 167 171
-217 -98 310 2 11 10
-216 -98 310 2 11 10
-214 -98 309 1 10 9
-213 -98 309 3 9 7
-212 -97 308 3 9 9
-209 -96 306 2 10 9
-207 -96 304 1 10 9
-205 -95 302 1 10 7
-202 -94 299 2 11 8
-200 -93 297 2 11 8
-197 -92 295 1 10 9
-195 -92 293 1 10 9
-194 -91 292 1 10 7
-192 -91 291 1 9 6
-191 -91 290 2 9 6
-189 -90 289 3 9 7
-188 -90 289 3 10 8
-187 -90 288 4 10 8
-186 -90 288 4 10 8
-185 -89 288 3 9 7
-184 -89 288 3 9 7
-183 -89 288 3 9 7
-183 -89 289 2 9 7
-182 -89 288 2 9 9
-180 -89 287 2 10 9
-179 -89 287 2 10 9
-178 -88 286 1 10 9
-177 -88 286 1 10 9
-176 -88 286 1 10 9
-176 -88 286 1 10 9
-174 -88 285 2 11 10
-173 -88 285 1 10 9
-172 -87 285 0 9 8
-171 -87 284 1 10 9
-170 -87 284 2 10 9
-169 -87 283 2 10 9
-168 -87 283 3 10 9
-167 -86 283 4 10 10
-167 -86 283 4 10 10
-165 -86 282 3 9 9
-164 -86 282 3 9 9
-164 -86 282 3 9 9
-163 -86 283 3 9 9
-163 -86 283 3 9 9
-162 -86 283 3 9 9
-161 -86 283 2 8 8
-160 -86 283 3 9 9
-160 -86 283 3 9 9
-159 -86 283 3 9 9
-158 -86 283 3 9 8
-157 -86 283 3 9 9
-157 -85 283 3 9 9
-156 -85 283 3 9 9
-155 -85 283 2 8 8
-155 -86 284 4 10 10
-154 -85 284 4 10 10
-153 -85 284 4 10 10
-153 -85 284 4 10 10
-152 -85 284 3 9 9
-151 -85 284 3 9 9
-150 -85 284 3 9 9
-149 -85 283 3 9 9
-149 -85 284 4 10 10
-148 -85 283 3 9 9
-147 -85 284 3 9 9
-147 -85 284 3 9 9
-146 -85 284 3 9 9
-145 -85 284 4 10 10
-144 -85 284 4 10 10
-144 -85 284 4 10 10
-143 -84 284 4 10 10
-142 -84 284 4 11 11
-141 -84 284 5 11 11
-141 -84 284 7 13 13
-140 -85 285 5 11 12
-140 -84 285 4 10 12
-139 -84 285 7 12 15
-138 -84 285 7 12 15
-138 -85 286 8 13 16
-137 -85 286 9 14 17
-137 -84 286 10 15 18
-136 -84 286 11 17 17
-136 -85 287 12 17 17
-135 -85 287 12 17 17
-134 -85 287 13 18 18
-134 -85 288 14 19 19
-133 -85 288 14 18 19
-133 -85 288 15 19 20
-132 -85 289 15 19 20
-132 -85 289 15 19 20
-131 -85 289 15 19 20
-130 -85 289 14 18 22
-129 -85 289 15 19 22
-129 -85 290 15 19 22
-128 -85 290 15 19 22
-128 -85 291 14 18 21
-128 -85 291 15 18 23
-127 -85 292 15 19 22
-127 -85 292 15 19 22
-126 -85 293 17 21 24
-126 -85 293 18 21 26
-125 -86 294 16 21 25
-125 -86 294 17 22 26
-124 -86 295 20 25 29
-124 -86 295 20 25 29
-123 -86 295 19 24 28
-123 -86 296 18 24 28
-122 -86 297 18 23 27
-122 -86 297 19 24 28
-121 -86 297 20 25 29
-121 -86 298 19 26 30
-120 -86 298 19 26 29
-120 -87 299 20 28 30
-119 -87 300 22 30 33
-119 -87 301 25 33 36
-119 -87 302 26 34 37
-119 -88 304 22 31 33
-118 -88 305 22 30 33
-118 -89 307 18 26 29
-118 -89 309 16 24 27
-118 -89 310 18 26 29
-118 -90 312 20 25 29
-118 -90 313 22 27 33
-117 -90 314 21 28 34
-117 -91 315 18 25 31
-117 -91 316 20 26 32
-116 -91 317 23 29 35
-116 -91 318 24 31 38
-116 -92 319 26 33 40
-116 -92 321 26 33 39
-115 -92 322 26 33 39
-115 -93 323 28 35 43
-114 -93 324 29 36 44
-114 -93 326 29 36 43
-114 -94 327 31 38 46
-114 -94 328 35 41 49
-114 -95 331 40 45 52
-114 -95 334 34 39 46
-115 -97 339 29 33 40
-116 -98 345 34 38 45
-117 -100 350 33 36 42
-117 -101 353 42 44 49
-117 -101 355 94 95 100
-116 -101 355 160 161 165
-218 -97 310 2 11 10
-216 -97 309 2 11 10
-215 -97 309 1 10 9
-214 -97 309 1 10 9
-213 -97 309 1 10 7
-212 -96 308 1 10 9
-209 -96 306 1 10 9
-207 -95 304 1 10 9
-204 -94 301 1 10 7
-201 -93 298 2 11 8
-199 -92 296 2 11 8
-197 -91 294 2 10 9
-195 -91 293 2 9 9
-193 -90 291 2 9 7
-191 -90 290 2 8 6
-190 -89 289 2 8 7
-188 -89 288 2 9 8
-187 -89 288 2 10 8
-187 -89 288 2 10 9
-186 -89 288 1 10 7
-185 -89 288 1 10 7
-184 -89 288 1 10 8
-183 -89 288 2 10 8
-182 -88 288 2 10 8
-181 -88 287 1 10 9
-180 -88 287 2 11 10
-179 -88 286 1 10 9
-178 -88 286 2 10 9
-176 -87 285 2 10 9
-176 -87 285 3 10 10
-175 -87 285 4 10 10
-174 -87 285 4 10 10
-173 -87 284 4 10 10
-172 -86 284 3 9 9
-171 -86 284 3 9 9
-170 -86 283 3 9 9
-169 -86 283 3 9 9
-168 -86 283 4 10 10
-167 -85 282 4 10 10
-166 -85 282 3 9 9
-165 -85 282 4 10 10
-164 -85 282 4 10 10
-164 -85 282 4 10 10
-163 -85 282 4 8 9
-162 -85 282 2 8 8
-161 -85 282 3 9 9
-161 -85 283 3 9 9
-160 -85 283 3 9 9
-159 -85 282 2 8 8
-158 -85 282 3 9 9
-157 -85 282 3 9 9
-157 -85 282 3 9 9
-156 -85 283 4 10 10
-156 -85 283 3 9 9
-155 -85 283 2 8 8
-154 -85 283 3 9 9
-154 -85 284 4 10 10
-153 -85 284 4 10 10
-152 -85 284 3 9 9
-151 -84 283 3 9 9
-150 -84 283 2 8 8
-150 -84 283 2 8 8
-149 -84 283 3 9 9
-148 -84 283 3 9 9
-147 -84 283 3 9 9
-147 -84 283 4 9 9
-147 -84 284 4 10 10
-146 -84 284 4 10 10
-145 -84 284 4 10 10
-144 -84 284 4 10 10
-144 -84 284 4 10 10
-142 -84 283 5 11 11
-142 -83 283 5 11 11
-141 -84 284 6 11 12
-141 -84 284 7 12 12
-140 -84 284 7 12 13
-140 -84 285 8 12 13
-139 -84 285 9 13 14
-138 -84 285 9 13 16
-138 -84 285 10 14 17
-137 -84 285 11 15 18
-137 -84 286 13 17 20
-136 -84 286 13 17 18
-135 -84 286 13 17 18
-135 -84 287 14 18 19
-134 -84 287 14 18 19
-133 -84 287 14 18 19
-133 -84 287 14 18 19
-133 -84 288 14 19 19
-132 -84 288 14 19 20
-131 -84 288 14 19 19
-130 -84 288 12 17 18
-130 -84 289 13 17 20
-129 -84 289 13 17 18
-129 -84 289 13 17 18
-128 -84 289 12 17 18
-128 -84 290 13 17 20
-127 -84 290 13 18 20
-127 -84 291 14 19 20
-126 -84 291 13 18 20
-126 -85 292 16 20 22
-125 -84 292 15 19 21
-124 -84 292 14 19 22
-124 -85 293 15 19 21
-124 -85 294 16 20 21
-123 -85 294 17 21 22
-122 -85 294 17 22 25
-122 -85 295 16 23 26
-121 -85 295 17 23 26
-121 -85 296 18 23 26
-120 -85 296 19 24 27
-120 -85 297 17 25 28
-120 -86 298 19 25 29
-119 -86 298 20 25 29
-119 -86 299 21 26 30
-118 -86 299 22 27 31
-118 -86 301 22 29 32
-118 -87 302 23 29 32
-117 -87 303 24 30 35
-118 -87 305 22 29 35
-118 -88 307 21 28 34
-117 -88 308 20 27 33
-117 -89 310 22 27 31
-117 -89 311 21 26 32
-117 -89 312 22 27 33
-117 -90 314 20 25 31
-116 -90 315 20 25 31
-116 -90 316 23 28 34
-116 -91 318 25 32 38
-116 -91 319 26 33 39
-115 -91 320 25 32 38
-115 -91 321 25 32 38
-115 -92 323 28 35 41
-114 -92 324 29 36 42
-114 -93 326 26 33 39
-114 -93 327 28 35 41
-114 -93 328 32 39 45
-113 -94 330 40 45 51
-113 -94 332 38 43 49
-114 -95 337 28 33 39
-116 -97 343 33 38 44
-117 -99 349 33 36 41
-117 -100 353 38 41 46
-117 -100 355 68 71 76
-117 -101 356 150 151 155
-114 -99 351 171 172 175
-217 -96 309 1 10 9
-216 -96 309 2 11 10
-215 -96 309 1 10 9
-213 -96 308 2 11 10
-212 -96 308 1 10 7
-211 -95 307 1 10 9
-208 -95 305 1 10 9
-205 -94 302 1 10 9
-203 -92 299 2 10 8
-200 -92 297 2 9 8
-198 -91 295 2 9 8
-196 -90 293 2 9 9
-194 -90 292 3 9 9
-192 -89 290 3 9 9
-191 -89 289 4 10 10
-189 -88 288 2 10 10
-188 -88 287 2 11 10
-187 -88 287 2 11 10
-186 -88 287 1 10 9
-186 -88 288 2 10 9
-185 -88 288 3 10 8
-184 -88 288 3 9 8
-183 -88 287 3 9 7
-182 -87 287 4 10 8
-180 -87 286 4 10 10
-179 -87 286 4 10 10
-179 -87 286 4 10 10
-177 -87 285 4 10 10
-176 -86 285 4 10 10
-176 -86 285 4 10 10
-175 -86 285 3 9 9
-173 -86 284 3 9 9
-173 -86 284 4 9 9
-171 -85 283 3 8 11
-170 -85 283 3 9 9
-170 -85 283 4 10 10
-169 -85 283 3 9 9
-168 -85 283 3 9 9
-167 -85 282 3 9 9
-166 -85 282 3 9 9
-165 -85 282 3 9 9
-164 -85 282 4 10 10
-163 -84 282 4 9 9
-163 -84 282 4 8 7
-162 -84 282 3 8 7
-161 -84 282 4 8 8
-160 -84 282 3 9 7
-160 -84 282 4 10 8
-159 -84 282 3 9 8
-158 -84 282 3 9 9
-157 -84 282 3 9 9
-157 -84 282 3 9 9
-156 -84 282 3 9 9
-156 -84 283 3 9 9
-155 -84 283 2 8 8
-154 -84 283 3 8 8
-154 -84 284 4 9 9
-153 -84 283 4 9 9
-152 -84 283 4 8 9
-151 -84 283 4 8 9
-150 -84 283 4 8 9
-150 -83 283 3 7 8
-149 -83 283 4 8 7
-148 -83 283 5 9 8
-147 -83 283 5 9 8
-147 -83 283 6 10 9
-146 -83 283 7 11 10
-146 -83 284 6 10 11
-144 -83 283 5 11 11
-144 -83 283 5 11 11
-143 -83 283 5 11 11
-142 -83 283 6 11 11
-142 -83 283 7 11 12
-141 -83 284 9 13 14
-141 -83 284 10 14 15
-140 -83 284 9 13 14
-139 -83 284 8 12 13
-139 -83 285 10 14 15
-138 -83 285 10 14 15
-137 -83 285 9 15 16
-137 -83 285 11 16 18
-137 -83 286 11 16 19
-135 -83 285 11 16 17
-135 -83 286 11 17 17
-134 -83 286 11 17 17
-134 -83 286 12 17 17
-133 -83 286 11 16 17
-133 -83 287 11 16 17
-132 -83 287 11 16 17
-131 -83 287 12 17 18
-131 -83 287 12 16 17
-130 -83 287 13 17 18
-129 -83 287 10 15 18
-129 -83 288 11 16 19
-128 -83 288 10 15 18
-128 -83 289 9 14 17
-127 -83 289 9 15 16
-127 -83 290 11 16 18
-126 -83 290 12 16 19
-126 -83 290 12 16 19
-125 -84 291 13 17 20
-125 -84 291 13 17 18
-124 -83 291 12 17 19
-124 -84 292 13 18 19
-123 -84 292 13 18 19
-123 -84 293 14 20 20
-122 -84 293 15 20 23
-122 -84 294 16 21 24
-121 -84 295 16 21 24
-121 -84 295 17 22 25
-120 -84 296 17 23 26
-120 -85 297 19 24 28
-119 -85 297 19 23 28
-119 -85 297 19 23 27
-118 -85 298 20 24 29
-118 -85 298 20 25 29
-117 -85 299 22 27 31
-117 -85 300 22 27 31
-117 -86 301 24 29 33
-117 -86 303 24 32 35
-117 -87 305 25 33 36
-116 -87 306 25 33 36
-117 -87 308 27 32 36
-116 -88 309 27 32 37
-116 -88 311 29 34 39
-116 -88 312 26 31 35
-116 -89 314 22 27 33
-116 -89 316 21 28 34
-115 -90 317 23 30 36
-115 -90 318 25 32 38
-115 -90 320 25 32 38
-115 -91 321 26 33 39
-114 -91 322 27 34 40
-114 -91 324 26 33 39
-114 -92 325 25 32 38
-114 -92 326 26 33 39
-113 -92 328 30 36 42
-113 -93 329 37 42 48
-113 -93 330 40 45 51
-113 -94 334 32 37 43
-114 -95 339 33 38 44
-116 -98 348 29 32 37
-117 -99 353 35 38 43
-118 -100 356 55 58 62
-117 -100 357 132 133 137
-116 -100 355 165 166 169
-218 -96 309 1 10 9
-216 -95 308 1 10 9
-215 -95 308 1 10 9
-214 -95 308 2 11 10
-213 -95 308 1 10 9
-212 -95 307 2 11 10
-210 -94 306 3 11 10
-208 -93 304 3 10 10
-205 -92 301 3 10 10
-201 -91 297 4 10 10
-199 -90 295 4 10 10
-197 -90 293 3 9 9
-196 -90 293 3 9 9
-194 -89 291 3 10 10
-192 -89 290 4 10 10
-190 -88 288 4 10 10
-188 -87 287 2 11 10
-187 -87 287 2 11 10
-187 -87 287 3 11 10
-186 -87 287 4 10 9
-186 -87 288 4 10 8
-184 -87 287 5 9 8
-183 -87 287 5 9 8
-182 -87 286 4 9 8
-181 -86 286 4 10 9
-180 -86 285 4 10 10
-179 -86 285 4 10 10
-178 -86 285 3 9 9
-177 -86 285 4 10 10
-176 -86 285 4 10 10
-175 -85 284 4 10 10
-174 -85 284 3 9 9
-173 -85 284 3 9 9
-172 -85 283 3 9 9
-171 -85 283 4 8 9
-170 -85 283 3 9 8
-169 -85 283 3 8 8
-168 -84 282 4 8 8
-167 -84 282 4 10 8
-167 -84 282 3 9 7
-166 -84 282 3 9 7
-165 -84 282 3 9 9
-164 -84 282 3 9 9
-163 -84 282 3 9 8
-163 -84 282 3 7 6
-162 -84 282 4 8 7
-161 -84 282 4 8 7
-160 -84 282 4 8 7
-160 -83 282 4 9 8
-159 -83 282 4 9 9
-158 -83 282 4 10 10
-157 -83 282 4 10 10
-157 -83 282 3 9 9
-156 -83 282 4 8 9
-155 -83 282 4 8 9
-155 -83 283 3 7 8
-154 -83 283 4 8 9
-153 -83 283 6 10 11
-153 -83 283 5 9 10
-152 -83 283 5 9 10
-151 -83 283 4 8 9
-150 -83 283 4 8 9
-150 -83 283 4 8 8
-149 -83 283 5 9 8
-148 -83 283 5 9 8
-147 -83 283 6 10 9
-147 -83 283 6 10 9
-146 -83 283 7 11 10
-145 -82 283 7 11 12
-144 -82 283 7 11 12
-144 -82 283 7 11 12
-143 -82 283 7 11 12
-142 -82 283 8 12 13
-141 -82 283 8 13 14
-141 -82 283 8 14 14
-140 -82 283 9 14 15
-140 -82 284 8 14 14
-139 -82 284 8 14 14
-138 -82 284 10 14 15
-138 -82 285 9 14 15
-137 -82 285 9 13 14
-137 -82 285 9 13 14
-136 -82 285 9 13 14
-135 -82 285 9 13 13
-135 -82 285 10 14 15
-134 -82 285 10 14 15
-133 -82 285 10 14 15
-133 -82 286 10 14 15
-132 -82 286 11 15 16
-131 -82 286 10 14 15
-131 -82 286 9 13 14
-130 -82 286 10 14 15
-129 -82 286 11 16 17
-129 -82 287 11 15 18
-128 -82 287 10 14 17
-128 -82 287 10 14 17
-127 -82 288 10 14 17
-127 -82 288 9 13 16
-126 -82 289 8 12 15
-126 -82 289 10 14 17
-126 -83 290 11 15 18
-125 -83 290 11 15 18
-124 -83 290 10 14 17
-123 -83 290 10 15 16
-123 -83 291 11 17 17
-122 -83 291 12 18 18
-122 -83 292 13 19 19
-121 -83 292 15 20 23
-121 -83 293 16 21 24
-121 -83 294 16 21 24
-121 -84 295 16 21 24
-120 -84 295 17 22 25
-120 -84 296 19 23 26
-119 -84 296 19 23 27
-118 -84 296 20 24 27
-118 -84 297 21 25 28
-117 -84 297 23 27 30
-117 -84 298 23 28 31
-117 -84 299 24 29 32
-116 -85 300 23 28 32
-116 -85 301 25 30 33
-116 -85 303 23 29 33
-116 -86 304 25 31 35
-115 -86 305 27 33 37
-115 -86 307 30 35 39
-115 -87 308 36 41 45
-115 -87 310 30 35 39
-115 -88 312 22 29 35
-115 -88 314 21 28 34
-115 -89 316 23 30 35
-115 -89 317 25 32 36
-115 -89 319 25 32 37
-114 -90 320 25 32 38
-114 -90 322 24 31 37
-114 -90 323 24 31 37
-114 -91 325 25 32 38
-113 -91 326 26 33 39
-113 -91 327 28 35 41
-113 -92 328 35 40 46
-113 -92 330 40 45 51
-113 -93 332 35 40 46
-113 -94 337 31 36 42
-115 -96 345 31 34 41
-117 -98 352 32 36 41
-117 -99 356 45 47 52
-117 -99 357 80 81 86
-116 -99 356 146 147 151
-219 -95 309 1 10 9
-217 -95 308 1 10 9
-215 -94 307 2 12 11
-214 -94 307 2 11 10
-213 -94 307 2 11 10
-212 -94 307 3 11 10
-211 -94 306 5 11 11
-209 -93 304 5 11 11
-206 -92 302 5 11 11
-203 -91 299 4 11 11
-200 -90 296 4 10 10
-197 -89 293 4 10 10
-196 -89 292 4 10 10
-195 -89 292 4 10 10
-193 -88 290 3 9 9
-191 -88 289 3 11 10
-190 -87 288 3 11 10
-188 -87 287 3 11 10
-187 -87 287 3 10 10
-187 -87 287 4 10 10
-186 -87 287 4 10 10
-185 -86 287 4 10 10
-184 -86 287 4 10 10
-183 -86 286 4 10 10
-182 -86 286 4 10 10
-180 -85 285 5 11 11
-179 -85 285 4 10 10
-179 -85 285 4 9 9
-178 -85 285 2 8 7
-177 -85 285 3 9 8
-176 -85 284 3 9 8
-175 -85 284 3 9 7
-174 -85 284 3 9 7
-173 -85 284 3 9 7
-172 -84 283 3 9 7
-171 -84 283 5 9 8
-170 -84 283 4 8 7
-169 -84 282 4 8 7
-168 -84 282 4 8 7
-167 -84 282 5 9 8
-166 -83 282 5 9 9
-166 -83 282 4 9 10
-165 -83 282 4 9 10
-164 -83 282 4 8 9
-163 -83 282 4 8 8
-163 -83 282 4 8 7
-162 -83 282 5 9 8
-161 -83 282 4 8 7
-160 -83 282 4 8 9
-159 -83 282 4 8 9
-159 -83 282 4 9 10
-158 -83 282 5 9 10
-157 -83 282 4 10 10
-156 -83 282 4 10 10
-156 -82 282 4 8 8
-155 -82 282 4 8 8
-155 -83 283 4 8 7
-154 -83 283 4 8 7
-153 -82 283 6 10 9
-152 -82 283 4 8 7
-152 -82 283 4 8 7
-151 -82 283 4 8 7
-150 -82 283 5 9 8
-149 -82 283 5 9 8
-149 -82 283 5 9 8
-148 -82 283 5 9 8
-147 -82 283 6 10 9
-147 -82 283 6 10 9
-146 -82 283 7 11 11
-145 -82 283 7 13 13
-144 -82 283 6 12 12
-144 -82 283 7 13 13
-143 -82 283 7 13 13
-142 -82 283 8 14 14
-141 -81 283 9 13 14
-141 -81 283 9 13 14
-140 -81 283 9 13 14
-139 -81 283 9 13 14
-139 -81 283 9 13 14
-138 -81 284 9 13 14
-138 -81 284 9 13 14
-137 -81 284 8 12 13
-136 -81 284 8 12 13
-136 -82 285 8 12 13
-135 -81 285 8 12 13
-135 -81 285 8 12 13
-134 -81 285 8 12 13
-133 -81 285 8 12 13
-132 -81 285 9 13 14
-132 -81 285 10 14 15
-131 -81 285 9 13 16
-131 -81 286 9 13 15
-130 -81 286 9 13 15
-129 -81 286 10 14 16
-129 -81 286 9 15 16
-128 -81 286 9 15 15
-128 -81 287 9 15 15
-127 -81 287 8 14 14
-127 -82 288 9 14 14
-126 -82 288 9 14 15
-126 -82 289 10 14 16
-125 -82 289 13 17 18
-124 -82 289 13 17 19
-124 -82 289 12 16 17
-123 -82 290 11 16 17
-123 -82 290 11 17 17
-122 -82 291 12 18 18
-122 -82 292 14 20 20
-121 -82 292 15 20 20
-121 -82 293 15 19 21
-121 -83 294 15 20 23
-120 -83 294 16 21 24
-120 -83 295 17 22 25
-119 -83 295 17 22 25
-119 -83 296 19 23 26
-118 -83 296 21 25 28
-118 -83 297 21 25 28
-117 -83 297 23 27 30
-117 -83 298 23 27 30
-117 -84 299 23 27 31
-116 -84 300 24 28 32
-115 -84 300 25 28 33
-115 -84 301 22 27 31
-115 -84 302 22 27 31
-115 -85 303 24 29 33
-115 -85 305 26 31 35
-114 -85 306 32 37 41
-114 -86 308 33 38 42
-114 -86 310 29 34 40
-114 -87 312 27 32 38
-114 -87 314 26 31 36
-114 -88 316 27 32 36
-114 -88 317 26 31 35
-114 -89 319 24 29 35
-114 -89 321 23 30 36
-114 -89 322 24 31 37
-113 -90 324 25 32 38
-113 -90 325 25 32 38
-113 -91 327 28 34 40
-113 -91 328 34 39 45
-112 -91 329 38 43 49
-112 -92 331 41 46 52
-112 -92 334 33 38 44
-114 -94 341 35 38 45
-116 -97 350 33 37 42
-117 -98 355 40 42 47
-117 -99 357 50 51 56
-116 -99 357 122 123 127
-112 -96 347 115 116 120
-217 -94 307 3 9 9
-215 -93 306 3 9 9
-214 -93 306 5 11 11
-213 -93 305 5 11 11
-212 -93 305 6 12 12
-211 -93 305 6 12 12
-209 -92 304 5 11 11
-207 -91 302 5 11 11
-204 -90 299 4 11 10
-201 -89 296 5 11 10
-198 -88 293 4 10 9
-197 -88 292 4 10 10
-195 -88 291 4 10 10
-194 -87 290 4 10 10
-192 -87 289 4 10 10
-191 -87 288 5 11 11
-189 -86 287 4 10 10
-188 -86 287 4 10 10
-187 -86 287 3 9 9
-186 -86 287 3 9 9
-186 -86 287 5 10 10
-185 -86 287 5 9 10
-183 -85 286 5 9 10
-182 -85 285 5 10 11
-181 -85 285 5 9 10
-180 -85 284 6 9 10
-179 -84 284 5 9 8
-178 -84 284 4 8 7
-177 -84 284 3 7 6
-176 -84 284 4 8 7
-176 -84 284 4 8 8
-175 -84 284 4 9 8
-173 -84 283 4 9 9
-172 -84 283 4 9 9
-172 -84 283 4 10 10
-170 -83 282 5 9 8
-170 -83 282 5 9 8
-169 -83 282 6 10 9
-168 -83 282 5 9 10
-167 -83 282 6 10 11
-166 -83 282 5 9 10
-166 -83 282 5 9 10
-165 -83 282 5 9 10
-164 -83 282 5 9 9
-163 -82 282 5 9 9
-162 -82 282 5 9 8
-162 -82 282 5 9 8
-161 -82 282 5 9 8
-160 -82 282 5 9 8
-159 -82 282 4 8 7
-159 -82 282 4 8 8
-158 -82 282 4 8 8
-157 -82 282 6 10 9
-156 -82 282 6 10 9
-156 -82 282 6 10 9
-155 -82 282 4 8 7
-154 -82 282 4 8 7
-154 -82 283 4 8 7
-153 -82 283 4 9 7
-152 -82 283 3 8 6
-152 -82 283 2 8 6
-151 -82 283 3 9 7
-150 -82 283 3 9 7
-149 -81 282 3 9 7
-148 -81 282 5 9 8
-147 -81 282 5 9 8
-147 -81 282 6 10 9
-146 -81 282 6 10 9
-145 -81 282 7 11 10
-145 -81 283 7 13 13
-144 -81 283 8 14 14
-144 -81 283 7 13 13
-142 -81 282 7 13 13
-142 -81 282 6 12 12
-141 -81 282 7 11 12
-141 -81 283 8 12 13
-139 -80 282 8 12 13
-139 -81 283 8 12 13
-138 -81 283 9 13 14
-138 -81 283 8 12 13
-137 -81 283 8 12 13
-137 -81 284 7 11 12
-136 -81 284 7 11 12
-135 -81 284 7 11 12
-135 -81 284 7 11 12
-134 -81 284 7 11 12
-133 -80 284 8 12 13
-133 -80 284 8 12 12
-132 -81 285 8 12 13
-132 -81 285 11 15 16
-131 -81 285 10 14 15
-130 -80 285 10 14 15
-130 -81 286 10 14 15
-129 -81 286 11 15 16
-129 -81 286 9 15 13
-128 -81 286 10 16 14
-127 -80 286 10 16 14
-127 -81 287 10 16 14
-126 -81 287 11 16 15
-126 -81 288 10 16 15
-125 -81 288 11 16 15
-125 -81 288 13 19 17
-124 -81 289 13 19 17
-124 -81 289 14 18 17
-123 -81 289 14 18 18
-123 -81 290 13 17 18
-122 -81 291 13 18 18
-122 -81 291 13 18 18
-121 -82 292 13 17 18
-121 -82 293 13 17 19
-120 -82 293 14 18 20
-120 -82 293 14 19 22
-119 -82 294 15 20 23
-119 -82 295 16 21 24
-118 -82 295 17 22 25
-118 -82 296 18 22 25
-117 -82 296 19 23 26
-117 -83 297 20 24 28
-116 -82 297 22 26 30
-116 -83 298 23 26 31
-116 -83 299 24 27 32
-115 -83 300 24 27 32
-115 -83 301 24 27 32
-114 -83 301 23 26 31
-114 -84 302 24 27 33
-114 -84 303 23 28 33
-113 -84 304 26 31 36
-113 -85 306 30 35 41
-114 -85 308 31 36 42
-114 -86 310 30 35 41
-114 -86 312 28 33 39
-114 -87 314 28 33 39
-114 -87 316 28 33 39
-114 -88 318 25 31 37
-113 -88 319 25 31 37
-113 -88 321 24 30 36
-113 -89 323 25 31 37
-113 -89 325 26 31 37
-113 -90 326 28 33 39
-112 -90 327 33 38 44
-112 -90 328 36 41 47
-112 -91 330 42 47 53
-112 -91 333 36 41 47
-113 -93 338 37 40 47
-115 -95 347 33 38 45
-116 -97 353 34 37 44
-117 -97 356 47 48 53
-116 -98 357 95 96 100
-114 -97 353 144 145 149
-218 -93 307 4 10 10
-216 -92 305 4 10 10
-214 -92 304 3 11 9
-213 -92 304 4 12 10
-212 -92 304 4 13 10
-210 -91 303 5 14 11
-209 -91 303 3 14 10
-208 -91 302 4 13 10
-205 -90 299 5 12 10
-202 -89 296 4 11 9
-200 -88 294 4 10 8
-197 -87 291 4 10 8
-195 -87 290 4 10 8
-194 -86 289 5 10 10
-193 -86 289 5 10 11
-191 -86 288 5 9 10
-190 -86 287 6 10 11
-188 -85 286 5 9 10
-187 -85 286 4 10 10
-187 -85 286 4 10 10
-186 -85 286 4 10 10
-185 -85 286 6 10 11
-184 -85 286 6 10 11
-183 -84 285 6 10 11
-181 -84 284 6 10 11
-180 -84 283 5 10 11
-179 -84 283 7 9 9
-178 -83 283 5 9 10
-177 -83 283 4 8 9
-176 -83 283 4 8 9
-176 -83 283 5 9 10
-175 -83 283 5 9 10
-174 -83 283 5 9 10
-173 -83 283 6 10 11
-172 -83 283 6 10 11
-171 -83 282 7 10 11
-170 -82 282 8 10 9
-169 -82 282 8 11 10
-168 -82 281 8 11 10
-167 -82 281 8 11 10
-166 -82 281 7 11 10
-166 -82 281 6 10 9
-165 -82 281 6 10 9
-164 -82 281 6 10 9
-164 -82 282 5 10 7
-163 -82 282 6 10 8
-162 -82 282 6 10 9
-162 -82 282 5 9 8
-161 -82 282 5 9 8
-160 -82 282 4 8 7
-159 -81 282 3 7 6
-159 -81 282 4 8 7
-157 -81 281 4 8 7
-157 -81 281 5 9 8
-156 -81 282 5 9 8
-156 -81 282 4 10 8
-155 -81 282 3 9 7
-154 -81 282 2 8 6
-153 -81 282 2 8 6
-153 -81 282 4 10 8
-152 -81 282 2 8 6
-151 -81 282 3 7 6
-150 -81 282 4 8 7
-150 -81 282 4 8 7
-149 -81 282 5 9 8
-148 -81 282 6 10 9
-147 -80 282 6 10 9
-147 -80 282 7 11 10
-146 -80 282 7 11 10
-145 -80 282 8 12 11
-144 -80 282 8 13 13
-144 -80 282 8 14 14
-143 -80 282 7 13 13
-142 -80 282 7 13 13
-142 -80 282 7 13 13
-141 -80 282 7 11 12
-140 -80 282 7 11 12
-139 -80 282 7 11 12
-139 -80 282 8 12 13
-138 -80 282 7 11 12
-137 -80 282 7 11 12
-137 -80 283 7 11 12
-136 -80 283 6 10 11
-136 -80 283 6 10 11
-135 -80 283 6 10 11
-135 -80 284 6 10 9
-134 -80 284 6 10 9
-133 -80 284 7 11 10
-133 -80 284 7 11 10
-132 -80 284 8 12 11
-131 -80 284 9 13 13
-131 -80 285 9 13 12
-130 -80 285 10 14 14
-129 -80 285 11 15 16
-129 -80 285 12 16 17
-128 -80 286 9 15 14
-128 -80 286 9 15 14
-127 -80 286 10 16 15
-127 -80 287 11 17 15
-126 -80 287 11 17 15
-125 -80 287 11 15 14
-125 -80 288 12 16 15
-124 -80 288 13 17 16
-124 -80 288 13 17 16
-124 -80 289 15 19 18
-123 -80 289 13 17 16
-123 -81 290 13 16 16
-122 -80 290 12 16 17
-122 -81 291 12 16 17
-121 -81 292 13 17 18
-121 -81 292 13 17 18
-120 -81 293 12 16 18
-120 -81 293 12 17 20
-119 -81 294 14 19 22
-119 -81 294 15 20 23
-118 -81 295 15 20 23
-118 -81 295 16 20 23
-117 -82 296 16 21 24
-117 -82 296 17 22 26
-116 -82 297 20 25 29
-116 -82 297 21 26 30
-115 -82 298 23 26 31
-115 -82 299 24 28 33
-115 -82 300 24 27 33
-114 -83 301 23 27 33
-114 -83 302 23 27 34
-114 -83 303 24 29 35
-113 -83 303 24 29 35
-113 -84 305 24 29 35
-113 -84 306 26 31 37
-113 -84 308 27 32 38
-112 -85 309 27 32 38
-112 -85 311 30 35 41
-112 -86 313 32 38 44
-112 -86 315 28 35 41
-112 -87 317 27 34 40
-112 -87 319 25 32 38
-112 -88 321 24 31 37
-112 -88 323 25 32 38
-112 -89 325 26 33 39
-112 -89 326 33 38 44
-112 -89 328 35 40 46
-111 -90 329 39 44 50
-111 -90 330 39 44 50
-112 -91 335 36 40 48
-114 -93 343 34 38 47
-116 -95 351 31 34 41
-116 -96 355 41 44 49
-116 -97 356 64 65 69
-114 -96 354 126 127 131
-215 -91 303 4 10 8
-213 -91 302 4 10 9
-212 -91 302 6 12 12
-211 -90 302 6 12 12
-210 -90 301 7 15 14
-209 -90 301 7 14 14
-207 -90 300 7 14 13
-205 -89 298 6 12 12
-203 -88 296 7 11 10
-200 -87 293 7 11 10
-198 -87 291 7 11 10
-195 -86 288 6 10 9
-194 -85 288 6 10 9
-192 -85 287 6 10 9
-191 -85 287 7 11 11
-190 -85 286 6 11 11
-189 -85 286 6 12 12
-188 -84 285 8 14 14
-187 -84 285 7 13 11
-186 -84 285 6 12 12
-185 -84 285 6 12 12
-184 -84 285 7 11 10
-183 -83 284 7 11 10
-181 -83 283 6 10 10
-180 -83 282 6 10 11
-179 -83 282 6 10 11
-178 -82 281 6 9 8
-177 -82 281 6 10 10
-177 -82 282 4 8 8
-176 -82 282 5 9 9
-175 -82 282 5 9 8
-174 -82 282 6 10 9
-174 -82 283 6 10 9
-173 -82 282 7 10 9
-172 -82 282 9 11 10
-171 -82 282 9 11 10
-170 -82 282 9 11 10
-169 -81 281 8 10 9
-168 -81 281 8 10 9
-167 -81 281 8 10 9
-166 -81 281 9 11 10
-166 -81 281 7 9 8
-165 -81 281 7 9 8
-164 -81 281 7 9 8
-164 -81 282 7 9 8
-163 -81 282 6 10 9
-162 -81 282 5 9 8
-162 -81 282 5 9 8
-161 -81 282 4 8 7
-160 -81 282 4 8 7
-159 -81 282 5 9 8
-158 -80 281 5 9 8
-157 -80 281 5 9 8
-156 -80 281 5 9 8
-156 -81 282 5 9 8
-155 -80 282 3 9 7
-155 -80 282 2 8 6
-154 -80 282 2 8 6
-153 -80 282 4 9 7
-152 -80 282 5 9 8
-152 -80 282 5 9 8
-151 -80 282 5 9 8
-150 -80 282 7 10 9
-150 -80 282 7 10 9
-149 -80 282 8 10 9
-148 -80 282 7 11 10
-147 -80 281 7 11 10
-146 -79 281 8 12 11
-146 -80 282 8 12 11
-145 -80 282 8 12 11
-144 -80 282 8 12 11
-144 -79 282 7 12 11
-143 -79 282 8 12 11
-142 -79 282 8 12 12
-141 -79 282 9 13 13
-140 -79 281 8 12 13
-140 -79 281 7 11 12
-139 -79 281 7 11 12
-138 -79 281 6 10 11
-137 -79 281 6 10 11
-137 -79 282 6 10 11
-136 -79 282 6 10 11
-136 -79 282 6 10 11
-135 -79 282 7 11 12
-135 -79 283 7 11 12
-134 -79 283 6 10 9
-133 -79 283 6 10 9
-133 -79 283 6 10 9
-132 -79 284 8 12 11
-132 -79 284 8 12 11
-131 -79 284 8 12 13
-130 -79 284 8 12 13
-130 -79 285 8 12 13
-129 -79 285 9 13 14
-129 -79 285 11 15 16
-128 -79 286 9 15 15
-128 -79 286 9 15 15
-127 -79 286 9 15 15
-126 -79 286 10 14 15
-126 -79 287 10 14 15
-125 -79 287 10 14 15
-125 -79 287 10 14 15
-124 -79 288 11 15 15
-124 -79 288 14 18 18
-123 -79 288 16 20 20
-123 -80 289 12 16 17
-123 -80 290 12 16 17
-122 -80 290 13 17 18
-122 -80 291 14 18 19
-121 -80 291 12 16 17
-121 -80 292 11 15 18
-120 -80 292 11 15 18
-120 -80 293 12 16 19
-119 -80 293 14 18 21
-119 -81 294 13 17 20
-118 -81 294 13 18 21
-118 -81 295 14 19 22
-117 -81 296 16 21 24
-117 -81 296 17 22 25
-116 -81 297 18 23 27
-116 -81 297 19 24 28
-115 -81 298 23 28 32
-115 -82 299 25 30 34
-114 -82 299 25 30 36
-114 -82 300 24 29 35
-114 -82 301 25 30 36
-113 -82 302 26 31 37
-113 -82 303 25 30 36
-113 -83 304 24 29 35
-112 -83 305 25 30 36
-112 -83 306 26 31 37
-112 -84 308 25 31 37
-112 -84 309 26 33 39
-112 -84 311 29 36 42
-112 -85 313 31 38 44
-112 -85 315 28 35 41
-112 -86 317 29 36 42
-112 -86 319 29 35 41
-112 -87 321 28 33 39
-112 -88 324 27 32 38
-111 -88 325 32 36 43
-111 -88 327 33 38 44
-111 -89 328 37 41 47
-111 -89 329 39 43 50
-111 -90 333 38 41 48
-113 -92 340 34 38 47
-115 -94 348 31 34 41
-116 -95 354 40 43 48
-116 -96 356 50 52 56
-114 -95 354 100 101 104
-212 -89 298 7 13 10
